25.098039215686274 25.098039215686274 25.098039215686274 25.098039215686274 25.098039215686274 25.098039215686274 25.098039215686274 25.098039215686274 25.098039215686274 25.098039215686274 25.098039215686274 25.098039215686274 25.098039215686274 25.098039215686274 25.098039215686274 25.098039215686274 25.098039215686274 25.098039215686274 25.098039215686274 25.098039215686274 25.098039215686274 25.098039215686274 25.098039215686274 25.098039215686274 25.098039215686274 25.098039215686274 25.098039215686274 25.098039215686274 25.098039215686274 25.49019607843137 27.058823529411764 33.72549019607843 35.68627450980392 36.470588235294116 35.294117647058826 35.294117647058826 34.90196078431372 34.90196078431372 35.294117647058826 35.294117647058826 36.470588235294116 37.254901960784316 37.254901960784316 36.86274509803922 36.86274509803922 36.86274509803922 37.254901960784316 37.64705882352941 37.254901960784316 37.254901960784316 36.86274509803922 36.86274509803922 36.86274509803922 36.470588235294116 36.07843137254902 36.07843137254902 36.07843137254902 35.68627450980392 35.294117647058826 35.294117647058826 34.90196078431372 34.509803921568626 32.15686274509804 29.411764705882355 26.666666666666668 25.49019607843137 24.705882352941178 25.098039215686274 25.098039215686274 25.098039215686274 25.098039215686274 25.098039215686274 25.098039215686274 25.098039215686274 25.098039215686274 25.098039215686274 25.098039215686274 25.098039215686274 29.411764705882355 36.470588235294116 35.294117647058826 34.90196078431372 35.294117647058826 34.90196078431372 35.294117647058826 36.07843137254902 37.254901960784316 37.254901960784316 38.03921568627451 38.03921568627451 37.64705882352941 37.64705882352941 37.254901960784316 37.254901960784316 37.254901960784316 37.254901960784316 37.254901960784316 36.07843137254902 34.11764705882353 30.980392156862745 30.980392156862745 34.11764705882353 36.07843137254902 35.68627450980392 34.509803921568626 33.72549019607843 34.11764705882353 34.509803921568626 33.72549019607843 34.90196078431372 34.90196078431372 34.90196078431372 35.294117647058826 100.0 100.0 100.0 100.0 100.0 100.0 100.0 100.0 100.0 100.0 100.0 100.0 100.0 100.0 100.0 100.0 100.0 100.0 100.0 100.0 100.0 100.0 100.0 100.0 100.0 100.0 100.0 100.0 100.0 100.0 100.0 100.0 100.0 100.0 100.0 100.0 100.0 100.0 100.0 100.0 100.0 100.0 100.0 100.0 100.0 34.90196078431372 33.72549019607843 33.72549019607843 33.72549019607843 35.68627450980392 34.509803921568626 34.509803921568626 35.294117647058826 35.294117647058826 35.68627450980392 36.07843137254902 36.07843137254902 35.294117647058826 35.68627450980392 36.86274509803922 36.470588235294116 36.07843137254902 36.86274509803922
25.098039215686274 25.098039215686274 25.098039215686274 25.098039215686274 25.098039215686274 25.098039215686274 25.098039215686274 25.098039215686274 25.098039215686274 25.098039215686274 25.098039215686274 25.098039215686274 25.098039215686274 25.098039215686274 25.098039215686274 25.098039215686274 25.098039215686274 25.098039215686274 25.098039215686274 25.098039215686274 25.098039215686274 25.098039215686274 25.098039215686274 25.098039215686274 25.098039215686274 25.098039215686274 25.098039215686274 25.098039215686274 25.098039215686274 25.098039215686274 25.098039215686274 25.882352941176475 31.372549019607842 34.11764705882353 36.470588235294116 35.68627450980392 35.294117647058826 34.90196078431372 34.509803921568626 34.90196078431372 35.294117647058826 36.07843137254902 36.86274509803922 37.254901960784316 36.86274509803922 36.86274509803922 36.86274509803922 37.254901960784316 37.64705882352941 37.64705882352941 37.64705882352941 37.254901960784316 36.86274509803922 36.86274509803922 36.470588235294116 36.470588235294116 36.470588235294116 36.07843137254902 35.68627450980392 35.68627450980392 35.294117647058826 35.68627450980392 34.90196078431372 34.90196078431372 34.509803921568626 30.58823529411765 25.882352941176475 25.098039215686274 25.098039215686274 25.098039215686274 25.098039215686274 25.098039215686274 25.098039215686274 25.098039215686274 25.098039215686274 25.098039215686274 25.098039215686274 29.411764705882355 35.68627450980392 35.294117647058826 34.90196078431372 34.90196078431372 34.90196078431372 35.294117647058826 36.07843137254902 37.254901960784316 37.254901960784316 37.64705882352941 38.03921568627451 37.64705882352941 37.64705882352941 37.254901960784316 36.86274509803922 36.86274509803922 37.254901960784316 37.254901960784316 36.470588235294116 34.90196078431372 31.372549019607842 30.58823529411765 32.94117647058823 35.68627450980392 35.68627450980392 34.90196078431372 33.72549019607843 33.72549019607843 34.11764705882353 34.509803921568626 34.509803921568626 34.90196078431372 34.90196078431372 35.294117647058826 100.0 100.0 100.0 100.0 100.0 100.0 100.0 100.0 100.0 100.0 100.0 100.0 100.0 100.0 100.0 100.0 100.0 100.0 100.0 100.0 100.0 100.0 100.0 100.0 100.0 100.0 100.0 100.0 100.0 100.0 100.0 100.0 100.0 100.0 100.0 100.0 100.0 100.0 100.0 100.0 100.0 100.0 100.0 100.0 100.0 100.0 100.0 33.33333333333333 33.33333333333333 34.11764705882353 34.90196078431372 34.509803921568626 34.90196078431372 35.68627450980392 35.294117647058826 36.07843137254902 36.07843137254902 35.294117647058826 35.294117647058826 36.07843137254902 36.86274509803922 36.470588235294116 36.07843137254902 37.254901960784316
25.098039215686274 25.098039215686274 25.098039215686274 25.098039215686274 0.0 0.0 0.0 0.0 0.0 0.0 0.0 25.098039215686274 25.098039215686274 25.098039215686274 25.098039215686274 25.098039215686274 25.098039215686274 25.098039215686274 25.098039215686274 25.098039215686274 25.098039215686274 25.098039215686274 25.098039215686274 25.098039215686274 25.098039215686274 25.098039215686274 25.098039215686274 25.098039215686274 25.098039215686274 25.098039215686274 25.098039215686274 25.098039215686274 25.49019607843137 29.80392156862745 32.94117647058823 36.470588235294116 35.294117647058826 35.294117647058826 34.90196078431372 34.509803921568626 34.90196078431372 35.294117647058826 35.68627450980392 36.470588235294116 37.64705882352941 36.86274509803922 36.470588235294116 36.470588235294116 36.86274509803922 37.254901960784316 37.64705882352941 37.64705882352941 37.64705882352941 37.254901960784316 36.86274509803922 36.470588235294116 36.470588235294116 36.470588235294116 36.470588235294116 36.07843137254902 35.294117647058826 35.294117647058826 35.294117647058826 35.294117647058826 35.294117647058826 34.90196078431372 34.11764705882353 29.01960784313726 25.098039215686274 25.098039215686274 25.098039215686274 25.098039215686274 25.098039215686274 25.098039215686274 25.098039215686274 26.27450980392157 30.980392156862745 34.90196078431372 35.294117647058826 34.509803921568626 34.509803921568626 34.509803921568626 35.294117647058826 36.07843137254902 37.254901960784316 37.254901960784316 37.64705882352941 38.03921568627451 37.64705882352941 37.254901960784316 37.254901960784316 36.86274509803922 36.86274509803922 36.86274509803922 37.254901960784316 36.86274509803922 35.68627450980392 32.15686274509804 29.411764705882355 31.372549019607842 34.509803921568626 36.07843137254902 35.294117647058826 33.72549019607843 33.72549019607843 34.11764705882353 34.509803921568626 34.509803921568626 34.90196078431372 34.90196078431372 34.90196078431372 35.294117647058826 100.0 100.0 100.0 100.0 100.0 100.0 100.0 100.0 100.0 100.0 100.0 100.0 100.0 100.0 100.0 100.0 100.0 100.0 100.0 100.0 100.0 100.0 100.0 100.0 100.0 100.0 100.0 100.0 100.0 100.0 100.0 100.0 100.0 100.0 100.0 100.0 100.0 100.0 100.0 100.0 100.0 100.0 100.0 100.0 100.0 100.0 100.0 33.33333333333333 33.72549019607843 34.509803921568626 34.509803921568626 34.509803921568626 35.294117647058826 35.68627450980392 35.294117647058826 36.07843137254902 36.07843137254902 35.294117647058826 34.90196078431372 36.86274509803922 36.86274509803922 36.07843137254902 36.470588235294116 37.64705882352941
0.0 0.0 0.0 0.0 0.0 0.0 0.0 0.0 0.0 0.0 0.0 0.0 0.0 0.0 0.0 25.098039215686274 25.098039215686274 25.098039215686274 25.098039215686274 25.098039215686274 25.098039215686274 25.098039215686274 25.098039215686274 25.098039215686274 25.098039215686274 25.098039215686274 25.098039215686274 25.098039215686274 25.098039215686274 25.098039215686274 25.098039215686274 25.098039215686274 25.098039215686274 25.098039215686274 27.84313725490196 30.980392156862745 35.68627450980392 35.68627450980392 34.90196078431372 34.509803921568626 34.509803921568626 34.509803921568626 34.90196078431372 35.68627450980392 36.07843137254902 36.86274509803922 36.470588235294116 36.07843137254902 36.07843137254902 36.470588235294116 36.470588235294116 37.254901960784316 37.254901960784316 37.64705882352941 37.64705882352941 37.64705882352941 36.86274509803922 36.470588235294116 36.07843137254902 36.07843137254902 35.68627450980392 35.294117647058826 35.294117647058826 34.90196078431372 35.294117647058826 35.294117647058826 35.294117647058826 34.11764705882353 31.372549019607842 27.450980392156865 25.098039215686274 25.098039215686274 25.098039215686274 25.49019607843137 28.235294117647058 33.33333333333333 34.90196078431372 34.90196078431372 34.509803921568626 34.509803921568626 34.509803921568626 35.294117647058826 36.07843137254902 37.254901960784316 37.254901960784316 37.254901960784316 37.64705882352941 37.64705882352941 37.64705882352941 37.254901960784316 36.86274509803922 36.86274509803922 36.86274509803922 37.254901960784316 36.86274509803922 35.68627450980392 33.33333333333333 28.627450980392155 28.627450980392155 33.33333333333333 36.07843137254902 36.07843137254902 34.509803921568626 33.72549019607843 33.72549019607843 34.11764705882353 34.90196078431372 34.90196078431372 34.90196078431372 34.509803921568626 35.68627450980392 100.0 100.0 100.0 100.0 100.0 100.0 100.0 100.0 100.0 100.0 100.0 100.0 100.0 100.0 100.0 100.0 100.0 100.0 100.0 100.0 100.0 100.0 100.0 100.0 100.0 100.0 100.0 100.0 100.0 100.0 100.0 100.0 100.0 100.0 100.0 100.0 100.0 100.0 100.0 100.0 100.0 100.0 100.0 100.0 100.0 100.0 100.0 100.0 100.0 34.11764705882353 34.509803921568626 34.509803921568626 34.90196078431372 35.294117647058826 35.294117647058826 35.68627450980392 36.07843137254902 36.07843137254902 35.294117647058826 35.294117647058826 37.254901960784316 36.86274509803922 35.68627450980392 36.86274509803922 37.64705882352941
0.0 0.0 0.0 0.0 0.0 0.0 0.0 0.0 0.0 0.0 0.0 0.0 0.0 0.0 0.0 0.0 25.098039215686274 25.098039215686274 25.098039215686274 25.098039215686274 25.098039215686274 25.098039215686274 25.098039215686274 25.098039215686274 25.098039215686274 25.098039215686274 25.098039215686274 25.098039215686274 25.098039215686274 25.098039215686274 25.098039215686274 25.098039215686274 25.098039215686274 25.098039215686274 25.098039215686274 26.27450980392157 26.27450980392157 32.15686274509804 35.68627450980392 35.294117647058826 34.90196078431372 34.90196078431372 34.509803921568626 34.90196078431372 35.294117647058826 35.68627450980392 35.68627450980392 35.68627450980392 35.294117647058826 35.294117647058826 35.294117647058826 34.90196078431372 35.294117647058826 35.68627450980392 36.86274509803922 37.254901960784316 37.254901960784316 37.64705882352941 37.254901960784316 36.470588235294116 36.07843137254902 35.68627450980392 35.294117647058826 34.90196078431372 34.509803921568626 34.509803921568626 34.509803921568626 34.509803921568626 32.94117647058823 31.372549019607842 26.666666666666668 25.098039215686274 25.49019607843137 29.411764705882355 33.33333333333333 34.509803921568626 34.90196078431372 34.90196078431372 34.90196078431372 34.90196078431372 35.294117647058826 36.07843137254902 37.254901960784316 37.254901960784316 37.254901960784316 37.64705882352941 38.03921568627451 37.64705882352941 37.254901960784316 36.86274509803922 36.470588235294116 36.470588235294116 37.254901960784316 36.86274509803922 35.68627450980392 33.33333333333333 28.235294117647058 27.450980392156865 30.19607843137255 34.509803921568626 36.86274509803922 35.294117647058826 34.11764705882353 33.72549019607843 33.72549019607843 34.90196078431372 34.509803921568626 34.509803921568626 34.509803921568626 35.294117647058826 35.294117647058826 100.0 100.0 100.0 100.0 100.0 100.0 100.0 100.0 100.0 100.0 100.0 100.0 100.0 100.0 100.0 100.0 100.0 100.0 100.0 100.0 100.0 100.0 100.0 100.0 100.0 100.0 100.0 100.0 100.0 100.0 100.0 100.0 100.0 100.0 100.0 100.0 100.0 100.0 100.0 100.0 100.0 100.0 100.0 100.0 100.0 100.0 100.0 100.0 100.0 33.72549019607843 34.11764705882353 34.90196078431372 34.90196078431372 36.07843137254902 35.294117647058826 35.68627450980392 36.470588235294116 35.68627450980392 35.294117647058826 36.470588235294116 37.254901960784316 36.470588235294116 36.07843137254902 37.254901960784316 38.03921568627451
0.0 0.0 0.0 0.0 0.0 0.0 0.0 0.0 0.0 0.0 0.0 0.0 0.0 0.0 0.0 0.0 0.0 0.0 25.098039215686274 25.098039215686274 25.098039215686274 25.098039215686274 25.098039215686274 25.098039215686274 25.098039215686274 25.098039215686274 25.098039215686274 25.098039215686274 25.098039215686274 25.098039215686274 25.098039215686274 25.098039215686274 25.098039215686274 25.098039215686274 25.098039215686274 25.098039215686274 25.098039215686274 25.098039215686274 29.01960784313726 34.11764705882353 34.509803921568626 34.90196078431372 34.90196078431372 34.509803921568626 34.90196078431372 35.294117647058826 35.68627450980392 35.68627450980392 35.294117647058826 34.90196078431372 34.11764705882353 33.33333333333333 32.94117647058823 32.15686274509804 31.76470588235294 32.94117647058823 34.509803921568626 36.07843137254902 35.68627450980392 36.07843137254902 36.86274509803922 36.470588235294116 35.68627450980392 34.90196078431372 34.509803921568626 34.11764705882353 33.72549019607843 32.94117647058823 32.15686274509804 31.76470588235294 26.666666666666668 26.27450980392157 29.411764705882355 31.372549019607842 33.72549019607843 34.509803921568626 34.90196078431372 34.90196078431372 35.294117647058826 35.294117647058826 36.07843137254902 37.254901960784316 37.254901960784316 37.254901960784316 37.64705882352941 38.03921568627451 37.64705882352941 37.254901960784316 36.86274509803922 36.470588235294116 36.470588235294116 36.86274509803922 36.86274509803922 36.07843137254902 33.33333333333333 27.84313725490196 25.882352941176475 27.84313725490196 32.15686274509804 35.294117647058826 35.68627450980392 34.90196078431372 33.72549019607843 33.72549019607843 34.11764705882353 35.68627450980392 34.509803921568626 34.509803921568626 35.294117647058826 35.294117647058826 34.90196078431372 100.0 100.0 100.0 100.0 100.0 100.0 100.0 100.0 100.0 100.0 100.0 100.0 100.0 100.0 100.0 100.0 100.0 100.0 100.0 100.0 100.0 100.0 100.0 100.0 100.0 100.0 100.0 100.0 100.0 100.0 100.0 100.0 100.0 100.0 100.0 100.0 100.0 100.0 100.0 100.0 100.0 100.0 100.0 100.0 100.0 100.0 100.0 100.0 100.0 33.33333333333333 34.90196078431372 34.509803921568626 35.68627450980392 35.68627450980392 35.294117647058826 36.07843137254902 36.470588235294116 35.68627450980392 35.294117647058826 37.254901960784316 36.86274509803922 36.07843137254902 36.470588235294116 37.254901960784316 37.64705882352941
0.0 0.0 0.0 0.0 0.0 0.0 0.0 0.0 0.0 0.0 0.0 0.0 0.0 0.0 0.0 0.0 0.0 0.0 0.0 25.098039215686274 25.098039215686274 25.098039215686274 25.098039215686274 25.098039215686274 25.098039215686274 25.098039215686274 25.098039215686274 25.098039215686274 25.098039215686274 25.098039215686274 25.098039215686274 25.098039215686274 25.098039215686274 25.098039215686274 25.098039215686274 25.098039215686274 25.098039215686274 25.098039215686274 24.705882352941178 25.882352941176475 30.980392156862745 34.11764705882353 34.509803921568626 34.11764705882353 33.33333333333333 32.94117647058823 33.72549019607843 35.294117647058826 35.68627450980392 35.294117647058826 34.509803921568626 32.94117647058823 31.76470588235294 30.980392156862745 30.58823529411765 29.80392156862745 29.01960784313726 29.411764705882355 30.58823529411765 31.76470588235294 32.15686274509804 32.549019607843135 34.509803921568626 36.07843137254902 35.294117647058826 34.11764705882353 33.72549019607843 33.33333333333333 32.15686274509804 30.980392156862745 27.058823529411764 27.84313725490196 29.80392156862745 31.76470588235294 33.33333333333333 34.509803921568626 34.90196078431372 35.294117647058826 35.68627450980392 36.470588235294116 37.254901960784316 37.254901960784316 37.254901960784316 37.254901960784316 38.03921568627451 37.64705882352941 37.254901960784316 37.254901960784316 36.86274509803922 36.470588235294116 36.86274509803922 36.86274509803922 36.470588235294116 34.11764705882353 27.84313725490196 25.49019607843137 25.882352941176475 29.411764705882355 33.33333333333333 36.07843137254902 35.294117647058826 34.509803921568626 33.72549019607843 33.72549019607843 34.90196078431372 35.294117647058826 34.11764705882353 34.90196078431372 35.68627450980392 34.90196078431372 100.0 100.0 100.0 100.0 100.0 100.0 100.0 100.0 100.0 100.0 100.0 100.0 100.0 100.0 100.0 100.0 100.0 100.0 100.0 100.0 100.0 100.0 100.0 100.0 100.0 100.0 100.0 100.0 100.0 100.0 100.0 100.0 100.0 100.0 100.0 100.0 100.0 100.0 100.0 100.0 100.0 100.0 100.0 100.0 100.0 100.0 100.0 100.0 100.0 100.0 100.0 34.90196078431372 34.90196078431372 36.07843137254902 35.294117647058826 35.294117647058826 36.07843137254902 36.07843137254902 35.68627450980392 36.07843137254902 37.254901960784316 36.86274509803922 35.68627450980392 36.86274509803922 37.64705882352941 36.86274509803922
0.0 0.0 0.0 0.0 0.0 0.0 0.0 0.0 0.0 0.0 0.0 0.0 0.0 0.0 0.0 0.0 0.0 0.0 0.0 0.0 25.098039215686274 25.098039215686274 25.098039215686274 25.098039215686274 25.098039215686274 25.098039215686274 25.098039215686274 25.098039215686274 25.098039215686274 25.098039215686274 25.098039215686274 25.098039215686274 25.098039215686274 25.098039215686274 25.098039215686274 25.098039215686274 25.098039215686274 25.098039215686274 25.098039215686274 25.098039215686274 25.098039215686274 28.235294117647058 32.15686274509804 32.94117647058823 32.15686274509804 30.980392156862745 30.58823529411765 30.58823529411765 31.76470588235294 33.72549019607843 34.11764705882353 32.15686274509804 30.980392156862745 29.411764705882355 28.235294117647058 27.84313725490196 27.84313725490196 27.84313725490196 27.84313725490196 27.450980392156865 27.84313725490196 27.84313725490196 27.450980392156865 30.58823529411765 34.509803921568626 34.509803921568626 33.33333333333333 32.94117647058823 32.94117647058823 30.19607843137255 27.450980392156865 27.84313725490196 30.19607843137255 32.15686274509804 34.509803921568626 35.294117647058826 35.68627450980392 36.07843137254902 36.86274509803922 37.254901960784316 36.86274509803922 36.86274509803922 37.254901960784316 37.64705882352941 37.64705882352941 37.254901960784316 37.254901960784316 36.86274509803922 36.07843137254902 36.86274509803922 36.86274509803922 36.470588235294116 34.90196078431372 28.627450980392155 25.49019607843137 25.098039215686274 27.058823529411764 30.980392156862745 34.11764705882353 35.294117647058826 34.509803921568626 33.72549019607843 33.72549019607843 33.72549019607843 35.294117647058826 34.509803921568626 34.11764705882353 34.90196078431372 35.294117647058826 35.294117647058826 100.0 100.0 100.0 100.0 100.0 100.0 100.0 100.0 100.0 100.0 100.0 100.0 100.0 100.0 100.0 100.0 100.0 100.0 100.0 100.0 100.0 100.0 100.0 100.0 100.0 100.0 100.0 100.0 100.0 100.0 100.0 100.0 100.0 100.0 100.0 100.0 100.0 100.0 100.0 100.0 100.0 100.0 100.0 100.0 100.0 100.0 100.0 100.0 100.0 100.0 100.0 34.90196078431372 35.294117647058826 35.68627450980392 35.294117647058826 35.68627450980392 36.86274509803922 36.07843137254902 35.294117647058826 36.86274509803922 37.254901960784316 36.470588235294116 36.07843137254902 36.86274509803922 37.254901960784316 36.470588235294116
0.0 0.0 0.0 0.0 0.0 0.0 0.0 0.0 0.0 0.0 0.0 0.0 0.0 0.0 0.0 0.0 0.0 0.0 0.0 0.0 0.0 25.098039215686274 25.098039215686274 25.098039215686274 25.098039215686274 25.098039215686274 25.098039215686274 25.098039215686274 25.098039215686274 25.098039215686274 25.098039215686274 25.098039215686274 25.098039215686274 25.098039215686274 25.098039215686274 25.098039215686274 25.098039215686274 25.098039215686274 25.098039215686274 25.098039215686274 25.098039215686274 25.098039215686274 25.882352941176475 29.01960784313726 30.19607843137255 29.80392156862745 28.627450980392155 27.450980392156865 27.450980392156865 27.84313725490196 28.627450980392155 29.411764705882355 29.411764705882355 28.627450980392155 27.058823529411764 25.49019607843137 24.705882352941178 25.882352941176475 26.27450980392157 26.666666666666668 26.666666666666668 25.882352941176475 25.882352941176475 25.49019607843137 25.49019607843137 29.411764705882355 32.549019607843135 31.372549019607842 33.33333333333333 29.411764705882355 27.84313725490196 29.411764705882355 32.549019607843135 34.90196078431372 35.68627450980392 35.68627450980392 36.470588235294116 37.254901960784316 37.254901960784316 36.86274509803922 36.86274509803922 37.254901960784316 37.64705882352941 37.64705882352941 37.254901960784316 37.254901960784316 36.470588235294116 36.07843137254902 36.86274509803922 36.86274509803922 36.86274509803922 35.294117647058826 29.411764705882355 25.49019607843137 25.098039215686274 25.098039215686274 28.235294117647058 31.76470588235294 34.509803921568626 35.294117647058826 34.509803921568626 33.33333333333333 33.33333333333333 34.509803921568626 35.294117647058826 34.509803921568626 34.509803921568626 35.68627450980392 35.294117647058826 35.68627450980392 100.0 100.0 100.0 100.0 100.0 100.0 100.0 100.0 100.0 100.0 100.0 100.0 100.0 100.0 100.0 100.0 100.0 100.0 100.0 100.0 100.0 100.0 100.0 100.0 100.0 100.0 100.0 100.0 100.0 100.0 100.0 100.0 100.0 100.0 100.0 100.0 100.0 100.0 100.0 100.0 100.0 100.0 100.0 100.0 100.0 100.0 100.0 100.0 100.0 100.0 100.0 34.90196078431372 36.07843137254902 35.294117647058826 35.294117647058826 36.07843137254902 36.470588235294116 35.68627450980392 35.68627450980392 38.03921568627451 36.470588235294116 36.07843137254902 36.470588235294116 37.254901960784316 36.86274509803922 36.07843137254902
0.0 0.0 0.0 0.0 0.0 0.0 0.0 0.0 0.0 0.0 0.0 0.0 0.0 0.0 0.0 0.0 0.0 0.0 0.0 0.0 0.0 0.0 25.098039215686274 25.098039215686274 25.098039215686274 25.098039215686274 25.098039215686274 25.098039215686274 25.098039215686274 25.098039215686274 25.098039215686274 25.098039215686274 25.098039215686274 25.098039215686274 25.098039215686274 25.098039215686274 25.098039215686274 25.098039215686274 25.098039215686274 25.098039215686274 25.098039215686274 25.098039215686274 25.098039215686274 25.098039215686274 25.49019607843137 27.058823529411764 27.450980392156865 26.27450980392157 25.49019607843137 25.098039215686274 25.49019607843137 26.27450980392157 26.27450980392157 26.27450980392157 26.27450980392157 25.098039215686274 25.098039215686274 25.098039215686274 25.098039215686274 25.098039215686274 25.098039215686274 25.49019607843137 25.098039215686274 25.098039215686274 24.705882352941178 25.098039215686274 25.882352941176475 30.58823529411765 32.549019607843135 30.980392156862745 30.980392156862745 33.33333333333333 35.68627450980392 35.68627450980392 35.294117647058826 36.07843137254902 36.86274509803922 36.86274509803922 36.470588235294116 36.470588235294116 37.254901960784316 38.03921568627451 37.64705882352941 37.254901960784316 36.86274509803922 36.470588235294116 36.07843137254902 36.86274509803922 36.86274509803922 36.86274509803922 35.68627450980392 29.80392156862745 25.098039215686274 25.098039215686274 25.098039215686274 26.27450980392157 29.411764705882355 32.549019607843135 34.509803921568626 35.294117647058826 34.11764705882353 33.33333333333333 33.72549019607843 34.509803921568626 34.509803921568626 34.509803921568626 35.294117647058826 35.294117647058826 35.294117647058826 36.07843137254902 100.0 100.0 100.0 100.0 100.0 100.0 100.0 100.0 100.0 100.0 100.0 100.0 100.0 100.0 100.0 100.0 100.0 100.0 100.0 100.0 100.0 100.0 100.0 100.0 100.0 100.0 100.0 100.0 100.0 100.0 100.0 100.0 100.0 100.0 100.0 100.0 100.0 100.0 100.0 100.0 100.0 100.0 100.0 100.0 100.0 100.0 100.0 100.0 100.0 100.0 100.0 35.294117647058826 35.294117647058826 35.294117647058826 35.68627450980392 36.470588235294116 36.470588235294116 35.68627450980392 37.254901960784316 37.254901960784316 36.470588235294116 36.470588235294116 36.86274509803922 37.254901960784316 36.07843137254902 35.68627450980392
0.0 0.0 0.0 0.0 0.0 0.0 0.0 0.0 0.0 0.0 0.0 0.0 0.0 0.0 0.0 0.0 0.0 0.0 0.0 0.0 0.0 0.0 0.0 25.098039215686274 25.098039215686274 25.098039215686274 25.098039215686274 25.098039215686274 25.098039215686274 25.098039215686274 25.098039215686274 25.098039215686274 25.098039215686274 25.098039215686274 25.098039215686274 25.098039215686274 25.098039215686274 25.098039215686274 25.098039215686274 25.098039215686274 25.098039215686274 25.098039215686274 25.098039215686274 25.098039215686274 25.098039215686274 25.098039215686274 25.098039215686274 25.098039215686274 24.705882352941178 25.098039215686274 25.098039215686274 25.49019607843137 25.098039215686274 25.098039215686274 25.098039215686274 25.098039215686274 25.098039215686274 25.098039215686274 25.098039215686274 25.098039215686274 25.098039215686274 25.098039215686274 25.098039215686274 25.098039215686274 25.098039215686274 25.098039215686274 25.882352941176475 30.19607843137255 33.33333333333333 34.90196078431372 36.07843137254902 35.68627450980392 35.294117647058826 35.294117647058826 36.07843137254902 36.07843137254902 36.470588235294116 36.470588235294116 36.86274509803922 37.64705882352941 37.64705882352941 37.254901960784316 36.86274509803922 36.86274509803922 36.470588235294116 36.07843137254902 36.86274509803922 36.86274509803922 36.470588235294116 35.68627450980392 30.19607843137255 25.098039215686274 25.098039215686274 25.098039215686274 25.098039215686274 27.058823529411764 30.19607843137255 32.94117647058823 34.509803921568626 34.509803921568626 33.33333333333333 33.33333333333333 34.11764705882353 34.509803921568626 34.509803921568626 34.90196078431372 35.294117647058826 35.294117647058826 35.68627450980392 36.07843137254902 100.0 100.0 100.0 100.0 100.0 100.0 100.0 100.0 100.0 100.0 100.0 100.0 100.0 100.0 100.0 100.0 100.0 100.0 100.0 100.0 100.0 100.0 100.0 100.0 100.0 100.0 100.0 100.0 100.0 100.0 100.0 100.0 100.0 100.0 100.0 100.0 100.0 100.0 100.0 100.0 100.0 100.0 100.0 100.0 100.0 100.0 100.0 100.0 100.0 100.0 100.0 35.294117647058826 34.90196078431372 35.294117647058826 36.07843137254902 36.470588235294116 36.07843137254902 36.07843137254902 38.03921568627451 36.470588235294116 36.470588235294116 36.470588235294116 36.86274509803922 36.470588235294116 35.68627450980392 34.90196078431372
0.0 0.0 0.0 0.0 0.0 0.0 0.0 0.0 0.0 0.0 0.0 0.0 0.0 0.0 0.0 0.0 0.0 0.0 0.0 0.0 0.0 0.0 0.0 25.098039215686274 25.098039215686274 25.098039215686274 25.098039215686274 25.098039215686274 25.098039215686274 25.098039215686274 25.098039215686274 25.098039215686274 25.098039215686274 25.098039215686274 25.098039215686274 25.098039215686274 25.098039215686274 25.098039215686274 25.098039215686274 25.098039215686274 25.098039215686274 25.098039215686274 25.098039215686274 25.098039215686274 25.098039215686274 25.098039215686274 25.098039215686274 25.098039215686274 25.098039215686274 25.098039215686274 25.098039215686274 25.098039215686274 24.705882352941178 25.098039215686274 25.098039215686274 25.098039215686274 25.098039215686274 25.098039215686274 25.098039215686274 25.098039215686274 25.098039215686274 25.098039215686274 24.705882352941178 25.098039215686274 25.098039215686274 27.058823529411764 28.627450980392155 30.980392156862745 34.509803921568626 36.86274509803922 34.90196078431372 34.90196078431372 34.90196078431372 35.294117647058826 36.07843137254902 36.470588235294116 36.470588235294116 37.254901960784316 37.64705882352941 37.254901960784316 36.86274509803922 36.86274509803922 36.86274509803922 36.470588235294116 36.07843137254902 36.86274509803922 36.470588235294116 36.07843137254902 35.68627450980392 29.411764705882355 25.098039215686274 25.098039215686274 25.098039215686274 25.098039215686274 25.098039215686274 28.235294117647058 31.372549019607842 33.33333333333333 34.90196078431372 34.509803921568626 33.33333333333333 33.33333333333333 33.72549019607843 34.11764705882353 34.90196078431372 34.90196078431372 36.07843137254902 35.294117647058826 35.68627450980392 36.470588235294116 100.0 100.0 100.0 100.0 100.0 100.0 100.0 100.0 100.0 100.0 100.0 100.0 100.0 100.0 100.0 100.0 100.0 100.0 100.0 100.0 100.0 100.0 100.0 100.0 100.0 100.0 100.0 100.0 100.0 100.0 100.0 100.0 100.0 100.0 100.0 100.0 100.0 100.0 100.0 100.0 100.0 100.0 100.0 100.0 100.0 100.0 100.0 100.0 100.0 100.0 100.0 35.294117647058826 35.294117647058826 36.07843137254902 36.470588235294116 36.470588235294116 36.07843137254902 37.64705882352941 37.254901960784316 36.470588235294116 36.470588235294116 36.86274509803922 36.470588235294116 35.294117647058826 35.68627450980392 31.372549019607842
0.0 0.0 0.0 0.0 0.0 0.0 0.0 0.0 0.0 0.0 0.0 0.0 0.0 0.0 0.0 0.0 0.0 0.0 0.0 0.0 0.0 0.0 0.0 0.0 25.098039215686274 25.098039215686274 25.098039215686274 25.098039215686274 25.098039215686274 25.098039215686274 25.098039215686274 25.098039215686274 25.098039215686274 25.098039215686274 25.098039215686274 25.098039215686274 25.098039215686274 25.098039215686274 25.098039215686274 25.098039215686274 25.098039215686274 25.098039215686274 25.098039215686274 25.098039215686274 25.098039215686274 25.098039215686274 25.098039215686274 25.098039215686274 25.098039215686274 25.098039215686274 25.49019607843137 25.098039215686274 25.098039215686274 25.098039215686274 25.098039215686274 24.705882352941178 24.705882352941178 24.705882352941178 25.098039215686274 25.098039215686274 25.098039215686274 25.098039215686274 25.098039215686274 24.705882352941178 25.882352941176475 27.058823529411764 29.01960784313726 30.58823529411765 32.15686274509804 33.33333333333333 33.72549019607843 34.509803921568626 35.294117647058826 36.07843137254902 36.86274509803922 36.86274509803922 37.254901960784316 37.64705882352941 37.254901960784316 36.86274509803922 36.470588235294116 36.470588235294116 36.07843137254902 36.470588235294116 36.86274509803922 36.07843137254902 35.68627450980392 35.294117647058826 29.01960784313726 25.098039215686274 25.098039215686274 25.098039215686274 25.098039215686274 25.098039215686274 25.49019607843137 29.01960784313726 32.549019607843135 33.72549019607843 35.294117647058826 34.11764705882353 32.94117647058823 33.33333333333333 33.72549019607843 34.509803921568626 34.90196078431372 35.294117647058826 35.68627450980392 35.294117647058826 35.294117647058826 36.470588235294116 100.0 100.0 100.0 100.0 100.0 100.0 100.0 100.0 100.0 100.0 100.0 100.0 100.0 100.0 100.0 100.0 100.0 100.0 100.0 100.0 100.0 100.0 100.0 100.0 100.0 100.0 100.0 100.0 100.0 100.0 100.0 100.0 100.0 100.0 100.0 100.0 100.0 100.0 100.0 100.0 100.0 100.0 100.0 100.0 100.0 100.0 100.0 100.0 100.0 100.0 100.0 34.509803921568626 35.294117647058826 36.07843137254902 36.07843137254902 36.07843137254902 36.470588235294116 38.03921568627451 36.470588235294116 36.470588235294116 36.470588235294116 36.86274509803922 36.07843137254902 35.294117647058826 34.509803921568626 28.235294117647058
0.0 0.0 0.0 0.0 0.0 0.0 0.0 0.0 0.0 0.0 0.0 0.0 0.0 0.0 0.0 0.0 0.0 0.0 0.0 0.0 0.0 0.0 0.0 0.0 25.098039215686274 25.098039215686274 25.098039215686274 25.098039215686274 25.098039215686274 25.098039215686274 25.098039215686274 25.098039215686274 25.098039215686274 25.098039215686274 25.098039215686274 25.098039215686274 25.098039215686274 25.098039215686274 25.098039215686274 25.098039215686274 25.098039215686274 25.098039215686274 25.098039215686274 25.098039215686274 25.098039215686274 25.098039215686274 25.098039215686274 25.098039215686274 25.098039215686274 29.80392156862745 27.84313725490196 26.27450980392157 25.098039215686274 24.705882352941178 25.098039215686274 25.098039215686274 24.705882352941178 25.098039215686274 25.098039215686274 25.49019607843137 25.49019607843137 25.882352941176475 25.882352941176475 26.27450980392157 27.450980392156865 29.411764705882355 30.19607843137255 31.372549019607842 32.15686274509804 33.33333333333333 34.509803921568626 35.294117647058826 36.470588235294116 36.86274509803922 37.254901960784316 37.64705882352941 37.64705882352941 36.86274509803922 36.470588235294116 36.470588235294116 36.07843137254902 36.07843137254902 36.470588235294116 36.470588235294116 35.68627450980392 35.294117647058826 35.294117647058826 28.235294117647058 25.098039215686274 25.098039215686274 25.098039215686274 25.098039215686274 25.098039215686274 25.098039215686274 26.666666666666668 30.19607843137255 32.94117647058823 34.11764705882353 35.294117647058826 33.33333333333333 32.94117647058823 33.72549019607843 33.72549019607843 34.90196078431372 34.90196078431372 36.07843137254902 35.294117647058826 35.294117647058826 35.68627450980392 36.470588235294116 100.0 100.0 100.0 100.0 100.0 100.0 100.0 100.0 100.0 100.0 100.0 100.0 100.0 100.0 100.0 100.0 100.0 100.0 100.0 100.0 100.0 100.0 100.0 100.0 100.0 100.0 100.0 100.0 100.0 100.0 100.0 100.0 100.0 100.0 100.0 100.0 100.0 100.0 100.0 100.0 100.0 100.0 100.0 100.0 100.0 100.0 100.0 100.0 100.0 100.0 100.0 34.90196078431372 35.68627450980392 36.07843137254902 36.07843137254902 36.470588235294116 37.254901960784316 37.64705882352941 36.470588235294116 36.470588235294116 36.86274509803922 36.470588235294116 35.294117647058826 35.68627450980392 31.372549019607842 25.098039215686274
0.0 0.0 0.0 0.0 0.0 0.0 0.0 0.0 0.0 0.0 0.0 0.0 0.0 0.0 0.0 0.0 0.0 0.0 0.0 0.0 0.0 0.0 0.0 0.0 0.0 25.098039215686274 25.098039215686274 25.098039215686274 25.098039215686274 25.098039215686274 25.098039215686274 25.098039215686274 25.098039215686274 25.098039215686274 25.098039215686274 25.098039215686274 25.098039215686274 25.098039215686274 25.098039215686274 25.098039215686274 25.098039215686274 25.098039215686274 25.098039215686274 25.098039215686274 25.098039215686274 25.098039215686274 25.098039215686274 25.098039215686274 25.098039215686274 31.372549019607842 31.372549019607842 29.80392156862745 27.058823529411764 24.705882352941178 24.705882352941178 25.098039215686274 25.098039215686274 25.49019607843137 25.882352941176475 26.27450980392157 26.666666666666668 27.450980392156865 27.84313725490196 28.627450980392155 29.411764705882355 30.19607843137255 31.372549019607842 32.15686274509804 33.33333333333333 34.90196078431372 36.07843137254902 37.254901960784316 37.64705882352941 37.64705882352941 37.64705882352941 37.254901960784316 36.86274509803922 36.470588235294116 36.470588235294116 36.07843137254902 36.07843137254902 36.470588235294116 35.294117647058826 34.90196078431372 35.294117647058826 34.11764705882353 27.84313725490196 25.098039215686274 25.098039215686274 25.098039215686274 25.098039215686274 25.098039215686274 25.098039215686274 25.098039215686274 27.84313725490196 31.372549019607842 33.33333333333333 34.509803921568626 34.509803921568626 32.94117647058823 32.94117647058823 33.72549019607843 33.72549019607843 35.294117647058826 34.509803921568626 36.07843137254902 35.294117647058826 35.294117647058826 36.470588235294116 36.470588235294116 35.68627450980392 100.0 100.0 100.0 100.0 100.0 100.0 100.0 100.0 100.0 100.0 100.0 100.0 100.0 100.0 100.0 100.0 100.0 100.0 100.0 100.0 100.0 100.0 100.0 100.0 100.0 100.0 100.0 100.0 100.0 100.0 100.0 100.0 100.0 100.0 100.0 100.0 100.0 100.0 100.0 100.0 100.0 100.0 100.0 100.0 100.0 100.0 100.0 100.0 100.0 34.90196078431372 34.90196078431372 36.07843137254902 36.07843137254902 36.07843137254902 36.86274509803922 38.03921568627451 36.86274509803922 36.470588235294116 36.86274509803922 36.86274509803922 36.07843137254902 35.68627450980392 33.72549019607843 25.098039215686274 25.098039215686274
0.0 0.0 0.0 0.0 0.0 0.0 0.0 0.0 0.0 0.0 0.0 0.0 0.0 0.0 0.0 0.0 0.0 0.0 0.0 0.0 0.0 0.0 0.0 0.0 0.0 25.098039215686274 25.098039215686274 25.098039215686274 25.098039215686274 25.098039215686274 25.098039215686274 25.098039215686274 25.098039215686274 25.098039215686274 25.098039215686274 25.098039215686274 25.098039215686274 25.098039215686274 25.098039215686274 25.098039215686274 25.098039215686274 25.098039215686274 25.098039215686274 25.098039215686274 25.098039215686274 25.098039215686274 25.098039215686274 25.098039215686274 26.27450980392157 28.627450980392155 32.15686274509804 31.76470588235294 31.76470588235294 25.49019607843137 25.098039215686274 25.098039215686274 25.49019607843137 26.27450980392157 27.058823529411764 27.84313725490196 28.235294117647058 29.01960784313726 30.19607843137255 30.980392156862745 32.94117647058823 33.72549019607843 34.509803921568626 35.68627450980392 36.470588235294116 37.254901960784316 37.254901960784316 37.64705882352941 37.64705882352941 37.254901960784316 37.254901960784316 36.86274509803922 36.470588235294116 36.07843137254902 36.07843137254902 36.07843137254902 35.68627450980392 34.509803921568626 34.509803921568626 35.294117647058826 31.372549019607842 25.49019607843137 25.098039215686274 25.098039215686274 25.098039215686274 25.098039215686274 25.098039215686274 25.098039215686274 25.098039215686274 25.098039215686274 29.01960784313726 32.94117647058823 34.11764705882353 35.294117647058826 34.11764705882353 32.94117647058823 33.33333333333333 33.72549019607843 34.509803921568626 34.90196078431372 34.90196078431372 35.68627450980392 35.294117647058826 35.294117647058826 36.86274509803922 36.470588235294116 35.68627450980392 100.0 100.0 100.0 100.0 100.0 100.0 100.0 100.0 100.0 100.0 100.0 100.0 100.0 100.0 100.0 100.0 100.0 100.0 100.0 100.0 100.0 100.0 100.0 100.0 100.0 100.0 100.0 100.0 100.0 100.0 100.0 100.0 100.0 100.0 100.0 100.0 100.0 100.0 100.0 100.0 100.0 100.0 100.0 100.0 100.0 100.0 100.0 100.0 100.0 35.294117647058826 35.294117647058826 35.68627450980392 36.07843137254902 36.07843137254902 36.86274509803922 38.03921568627451 36.86274509803922 36.07843137254902 36.86274509803922 36.470588235294116 36.07843137254902 36.07843137254902 30.19607843137255 25.098039215686274 25.098039215686274
0.0 0.0 0.0 0.0 0.0 0.0 0.0 0.0 0.0 0.0 0.0 0.0 0.0 0.0 0.0 0.0 0.0 0.0 0.0 0.0 0.0 0.0 0.0 0.0 0.0 25.098039215686274 25.098039215686274 25.098039215686274 25.098039215686274 25.098039215686274 25.098039215686274 25.098039215686274 25.098039215686274 25.098039215686274 25.098039215686274 25.098039215686274 25.098039215686274 25.098039215686274 25.098039215686274 25.098039215686274 25.098039215686274 25.098039215686274 25.098039215686274 25.098039215686274 25.098039215686274 25.098039215686274 25.098039215686274 25.098039215686274 25.49019607843137 28.235294117647058 29.80392156862745 33.72549019607843 32.549019607843135 32.15686274509804 32.15686274509804 32.15686274509804 32.15686274509804 31.76470588235294 31.76470588235294 32.15686274509804 32.549019607843135 33.72549019607843 34.90196078431372 36.470588235294116 37.254901960784316 37.254901960784316 37.254901960784316 37.254901960784316 37.64705882352941 37.64705882352941 37.64705882352941 37.254901960784316 37.254901960784316 36.86274509803922 36.86274509803922 36.470588235294116 35.68627450980392 35.68627450980392 36.07843137254902 35.294117647058826 34.11764705882353 34.509803921568626 34.11764705882353 28.627450980392155 25.098039215686274 25.098039215686274 25.098039215686274 25.098039215686274 25.098039215686274 25.098039215686274 25.098039215686274 25.098039215686274 25.098039215686274 26.27450980392157 30.58823529411765 34.11764705882353 34.509803921568626 34.90196078431372 33.33333333333333 32.549019607843135 33.33333333333333 34.11764705882353 34.90196078431372 34.509803921568626 35.294117647058826 35.294117647058826 35.294117647058826 36.07843137254902 36.470588235294116 36.07843137254902 36.07843137254902 100.0 100.0 100.0 100.0 100.0 100.0 100.0 100.0 100.0 100.0 100.0 100.0 100.0 100.0 100.0 100.0 100.0 100.0 100.0 100.0 100.0 100.0 100.0 100.0 100.0 100.0 100.0 100.0 100.0 100.0 100.0 100.0 100.0 100.0 100.0 100.0 100.0 100.0 100.0 100.0 100.0 100.0 100.0 100.0 100.0 100.0 100.0 100.0 100.0 35.294117647058826 35.68627450980392 36.07843137254902 36.07843137254902 36.470588235294116 37.254901960784316 37.64705882352941 36.470588235294116 36.07843137254902 36.86274509803922 36.470588235294116 36.07843137254902 35.68627450980392 29.01960784313726 25.098039215686274 25.098039215686274
0.0 0.0 0.0 0.0 0.0 0.0 0.0 0.0 0.0 0.0 0.0 0.0 0.0 0.0 0.0 0.0 0.0 0.0 0.0 0.0 0.0 0.0 0.0 0.0 0.0 0.0 25.098039215686274 25.098039215686274 25.098039215686274 25.098039215686274 25.098039215686274 25.098039215686274 25.098039215686274 25.098039215686274 25.098039215686274 25.098039215686274 25.098039215686274 25.098039215686274 25.098039215686274 25.098039215686274 25.098039215686274 25.098039215686274 25.098039215686274 25.098039215686274 25.098039215686274 25.098039215686274 25.098039215686274 25.098039215686274 25.098039215686274 27.058823529411764 30.58823529411765 32.15686274509804 32.94117647058823 33.72549019607843 34.509803921568626 34.90196078431372 35.294117647058826 35.294117647058826 35.68627450980392 36.07843137254902 36.470588235294116 36.470588235294116 36.86274509803922 37.254901960784316 37.254901960784316 37.254901960784316 36.86274509803922 36.86274509803922 36.86274509803922 36.86274509803922 36.86274509803922 36.86274509803922 36.470588235294116 36.470588235294116 35.68627450980392 35.68627450980392 36.07843137254902 35.294117647058826 34.509803921568626 34.11764705882353 34.509803921568626 30.980392156862745 25.882352941176475 25.098039215686274 25.098039215686274 25.098039215686274 25.098039215686274 25.098039215686274 25.098039215686274 25.098039215686274 25.098039215686274 25.098039215686274 25.098039215686274 27.058823529411764 31.372549019607842 34.509803921568626 34.90196078431372 34.90196078431372 32.94117647058823 32.549019607843135 32.94117647058823 34.90196078431372 34.90196078431372 34.11764705882353 35.294117647058826 34.90196078431372 35.68627450980392 36.07843137254902 36.470588235294116 36.07843137254902 37.254901960784316 37.254901960784316 100.0 100.0 100.0 100.0 100.0 100.0 100.0 100.0 100.0 100.0 100.0 100.0 100.0 100.0 100.0 100.0 100.0 100.0 100.0 100.0 100.0 100.0 100.0 100.0 100.0 100.0 100.0 100.0 100.0 100.0 100.0 100.0 100.0 100.0 100.0 100.0 100.0 100.0 100.0 100.0 100.0 100.0 100.0 100.0 100.0 100.0 100.0 35.294117647058826 35.294117647058826 35.294117647058826 36.07843137254902 36.07843137254902 36.470588235294116 37.254901960784316 37.64705882352941 36.470588235294116 36.07843137254902 36.470588235294116 36.470588235294116 36.07843137254902 34.509803921568626 25.098039215686274 25.098039215686274 25.098039215686274
0.0 0.0 0.0 0.0 0.0 0.0 0.0 0.0 0.0 0.0 0.0 0.0 0.0 0.0 0.0 0.0 0.0 0.0 0.0 0.0 0.0 0.0 0.0 0.0 0.0 0.0 25.098039215686274 25.098039215686274 25.098039215686274 25.098039215686274 25.098039215686274 25.098039215686274 25.098039215686274 25.098039215686274 25.098039215686274 25.098039215686274 25.098039215686274 25.098039215686274 25.098039215686274 25.098039215686274 25.098039215686274 25.098039215686274 25.098039215686274 25.098039215686274 25.098039215686274 25.098039215686274 25.098039215686274 25.098039215686274 25.098039215686274 25.882352941176475 30.19607843137255 31.76470588235294 33.33333333333333 33.72549019607843 34.11764705882353 34.11764705882353 34.509803921568626 34.90196078431372 34.90196078431372 35.294117647058826 35.294117647058826 35.294117647058826 35.68627450980392 36.07843137254902 36.470588235294116 36.470588235294116 36.470588235294116 36.86274509803922 36.86274509803922 36.86274509803922 36.470588235294116 36.07843137254902 35.68627450980392 35.68627450980392 35.68627450980392 35.68627450980392 34.90196078431372 33.72549019607843 34.11764705882353 32.94117647058823 27.84313725490196 25.098039215686274 25.098039215686274 25.098039215686274 25.098039215686274 25.098039215686274 25.098039215686274 25.098039215686274 25.098039215686274 25.098039215686274 25.098039215686274 25.098039215686274 25.098039215686274 27.450980392156865 31.76470588235294 34.509803921568626 34.90196078431372 34.509803921568626 33.33333333333333 32.15686274509804 33.33333333333333 34.90196078431372 34.90196078431372 34.11764705882353 35.294117647058826 34.509803921568626 35.68627450980392 36.07843137254902 36.07843137254902 36.07843137254902 38.03921568627451 36.86274509803922 100.0 100.0 100.0 100.0 100.0 100.0 100.0 100.0 100.0 100.0 100.0 100.0 100.0 100.0 100.0 100.0 100.0 100.0 100.0 100.0 100.0 100.0 100.0 100.0 100.0 100.0 100.0 100.0 100.0 100.0 100.0 100.0 100.0 100.0 100.0 100.0 100.0 100.0 100.0 100.0 100.0 100.0 100.0 100.0 100.0 100.0 100.0 35.294117647058826 35.68627450980392 35.68627450980392 36.07843137254902 36.07843137254902 36.86274509803922 37.64705882352941 37.64705882352941 36.470588235294116 36.07843137254902 36.86274509803922 36.470588235294116 36.07843137254902 33.33333333333333 25.098039215686274 25.098039215686274 25.098039215686274
0.0 0.0 0.0 0.0 0.0 0.0 0.0 0.0 0.0 0.0 0.0 0.0 0.0 0.0 0.0 0.0 0.0 0.0 0.0 0.0 0.0 0.0 0.0 0.0 0.0 0.0 25.098039215686274 25.098039215686274 25.098039215686274 25.098039215686274 25.098039215686274 25.098039215686274 25.098039215686274 25.098039215686274 25.098039215686274 25.098039215686274 25.098039215686274 25.098039215686274 25.098039215686274 25.098039215686274 25.098039215686274 25.098039215686274 25.098039215686274 25.098039215686274 25.098039215686274 25.098039215686274 25.098039215686274 25.098039215686274 25.098039215686274 25.098039215686274 30.19607843137255 32.549019607843135 33.33333333333333 33.72549019607843 33.72549019607843 34.509803921568626 34.509803921568626 34.509803921568626 34.90196078431372 34.90196078431372 34.90196078431372 35.68627450980392 35.68627450980392 36.07843137254902 36.470588235294116 36.470588235294116 36.07843137254902 36.07843137254902 36.07843137254902 35.68627450980392 35.68627450980392 35.68627450980392 35.68627450980392 35.294117647058826 34.509803921568626 33.72549019607843 34.11764705882353 34.11764705882353 29.80392156862745 25.098039215686274 25.098039215686274 25.098039215686274 25.098039215686274 25.098039215686274 25.098039215686274 25.098039215686274 25.098039215686274 25.098039215686274 25.098039215686274 25.098039215686274 25.098039215686274 25.098039215686274 25.098039215686274 27.84313725490196 32.15686274509804 34.90196078431372 34.90196078431372 34.509803921568626 32.94117647058823 32.549019607843135 33.33333333333333 35.294117647058826 34.90196078431372 33.72549019607843 34.90196078431372 34.90196078431372 36.07843137254902 36.07843137254902 36.07843137254902 36.470588235294116 38.03921568627451 36.86274509803922 36.07843137254902 100.0 100.0 100.0 100.0 100.0 100.0 100.0 100.0 100.0 100.0 100.0 100.0 100.0 100.0 100.0 100.0 100.0 100.0 100.0 100.0 100.0 100.0 100.0 100.0 100.0 100.0 100.0 100.0 100.0 100.0 100.0 100.0 100.0 100.0 100.0 100.0 100.0 100.0 100.0 100.0 100.0 100.0 100.0 100.0 100.0 35.294117647058826 34.90196078431372 36.07843137254902 35.68627450980392 36.07843137254902 36.07843137254902 37.254901960784316 38.03921568627451 37.254901960784316 36.07843137254902 36.07843137254902 36.86274509803922 36.470588235294116 35.68627450980392 32.15686274509804 25.098039215686274 25.098039215686274 25.098039215686274
0.0 0.0 0.0 0.0 0.0 0.0 0.0 0.0 0.0 0.0 0.0 0.0 0.0 0.0 0.0 0.0 0.0 0.0 0.0 0.0 0.0 0.0 0.0 0.0 0.0 0.0 25.098039215686274 25.098039215686274 25.098039215686274 25.098039215686274 25.098039215686274 25.098039215686274 25.098039215686274 25.098039215686274 25.098039215686274 25.098039215686274 25.098039215686274 25.098039215686274 25.098039215686274 25.098039215686274 25.098039215686274 25.098039215686274 25.098039215686274 25.098039215686274 25.098039215686274 25.098039215686274 25.098039215686274 25.098039215686274 25.098039215686274 25.098039215686274 27.84313725490196 32.94117647058823 34.11764705882353 34.90196078431372 34.90196078431372 34.90196078431372 34.90196078431372 34.90196078431372 34.90196078431372 34.90196078431372 35.294117647058826 35.294117647058826 35.294117647058826 36.07843137254902 36.07843137254902 36.07843137254902 35.68627450980392 35.68627450980392 35.68627450980392 35.68627450980392 35.294117647058826 34.90196078431372 34.509803921568626 33.72549019607843 33.72549019607843 33.33333333333333 31.76470588235294 27.058823529411764 25.098039215686274 25.098039215686274 25.098039215686274 25.098039215686274 25.098039215686274 25.098039215686274 25.098039215686274 25.098039215686274 25.098039215686274 25.098039215686274 25.098039215686274 25.098039215686274 25.098039215686274 25.098039215686274 25.098039215686274 27.84313725490196 32.94117647058823 34.90196078431372 34.90196078431372 34.11764705882353 32.94117647058823 32.549019607843135 33.33333333333333 34.509803921568626 34.90196078431372 34.509803921568626 34.90196078431372 35.294117647058826 36.07843137254902 36.07843137254902 36.470588235294116 36.86274509803922 38.03921568627451 36.86274509803922 36.07843137254902 100.0 100.0 100.0 100.0 100.0 100.0 100.0 100.0 100.0 100.0 100.0 100.0 100.0 100.0 100.0 100.0 100.0 100.0 100.0 100.0 100.0 100.0 100.0 100.0 100.0 100.0 100.0 100.0 100.0 100.0 100.0 100.0 100.0 100.0 100.0 100.0 100.0 100.0 100.0 100.0 100.0 100.0 100.0 100.0 100.0 34.90196078431372 35.294117647058826 36.07843137254902 35.68627450980392 36.07843137254902 36.07843137254902 37.254901960784316 38.03921568627451 36.86274509803922 36.07843137254902 36.07843137254902 36.470588235294116 36.470588235294116 35.294117647058826 30.980392156862745 25.098039215686274 25.098039215686274 25.098039215686274
0.0 0.0 0.0 0.0 0.0 0.0 0.0 0.0 0.0 0.0 0.0 0.0 0.0 0.0 0.0 0.0 0.0 0.0 0.0 0.0 0.0 0.0 0.0 0.0 0.0 0.0 25.098039215686274 25.098039215686274 25.098039215686274 25.098039215686274 25.098039215686274 25.098039215686274 25.098039215686274 25.098039215686274 25.098039215686274 25.098039215686274 25.098039215686274 25.098039215686274 25.098039215686274 25.098039215686274 25.098039215686274 25.098039215686274 25.098039215686274 25.098039215686274 25.098039215686274 25.098039215686274 25.098039215686274 25.098039215686274 25.098039215686274 25.098039215686274 25.098039215686274 31.76470588235294 33.33333333333333 34.11764705882353 34.509803921568626 34.509803921568626 34.90196078431372 35.294117647058826 34.90196078431372 35.294117647058826 35.294117647058826 35.294117647058826 35.294117647058826 35.294117647058826 35.294117647058826 34.90196078431372 34.90196078431372 34.509803921568626 34.90196078431372 34.509803921568626 33.72549019607843 33.33333333333333 32.94117647058823 32.15686274509804 29.411764705882355 26.666666666666668 25.098039215686274 25.098039215686274 25.098039215686274 25.098039215686274 25.098039215686274 25.098039215686274 25.098039215686274 25.098039215686274 25.098039215686274 25.098039215686274 25.098039215686274 25.098039215686274 25.098039215686274 25.098039215686274 25.098039215686274 25.098039215686274 25.098039215686274 28.627450980392155 33.33333333333333 34.90196078431372 34.509803921568626 34.11764705882353 33.33333333333333 32.549019607843135 33.72549019607843 34.509803921568626 34.90196078431372 34.509803921568626 34.90196078431372 35.294117647058826 36.07843137254902 36.07843137254902 36.470588235294116 37.254901960784316 37.64705882352941 36.470588235294116 36.07843137254902 36.86274509803922 100.0 100.0 100.0 100.0 100.0 100.0 100.0 100.0 100.0 100.0 100.0 100.0 100.0 100.0 100.0 100.0 100.0 100.0 100.0 100.0 100.0 100.0 100.0 100.0 100.0 100.0 100.0 100.0 100.0 100.0 100.0 100.0 100.0 100.0 100.0 100.0 100.0 100.0 100.0 100.0 100.0 100.0 100.0 34.90196078431372 34.90196078431372 35.68627450980392 35.68627450980392 35.68627450980392 36.07843137254902 36.470588235294116 37.64705882352941 37.64705882352941 36.86274509803922 35.68627450980392 36.470588235294116 36.86274509803922 36.470588235294116 34.90196078431372 29.411764705882355 25.098039215686274 25.098039215686274 25.098039215686274
0.0 0.0 0.0 0.0 0.0 0.0 0.0 0.0 0.0 0.0 0.0 0.0 0.0 0.0 0.0 0.0 0.0 0.0 0.0 0.0 0.0 0.0 0.0 0.0 0.0 0.0 25.098039215686274 25.098039215686274 25.098039215686274 25.098039215686274 25.098039215686274 25.098039215686274 25.098039215686274 25.098039215686274 25.098039215686274 25.098039215686274 25.098039215686274 25.098039215686274 25.098039215686274 25.098039215686274 25.098039215686274 25.098039215686274 25.098039215686274 25.098039215686274 25.098039215686274 25.098039215686274 25.098039215686274 25.098039215686274 25.098039215686274 25.098039215686274 25.098039215686274 25.098039215686274 25.098039215686274 26.27450980392157 27.058823529411764 28.235294117647058 29.411764705882355 30.58823529411765 31.372549019607842 32.549019607843135 33.72549019607843 33.33333333333333 33.33333333333333 33.33333333333333 32.549019607843135 32.549019607843135 32.15686274509804 32.15686274509804 32.15686274509804 32.15686274509804 31.372549019607842 29.01960784313726 27.058823529411764 25.098039215686274 25.098039215686274 25.098039215686274 25.098039215686274 25.098039215686274 25.098039215686274 25.098039215686274 25.098039215686274 25.098039215686274 25.098039215686274 25.098039215686274 25.098039215686274 25.098039215686274 25.098039215686274 25.098039215686274 25.098039215686274 25.098039215686274 25.098039215686274 25.098039215686274 25.098039215686274 28.235294117647058 32.94117647058823 34.90196078431372 34.90196078431372 33.72549019607843 33.33333333333333 32.94117647058823 33.33333333333333 34.509803921568626 34.90196078431372 34.90196078431372 34.90196078431372 35.68627450980392 36.07843137254902 36.07843137254902 36.470588235294116 37.254901960784316 37.64705882352941 36.86274509803922 36.07843137254902 36.470588235294116 36.470588235294116 100.0 100.0 100.0 100.0 100.0 100.0 100.0 100.0 100.0 100.0 100.0 100.0 100.0 100.0 100.0 100.0 100.0 100.0 100.0 100.0 100.0 100.0 100.0 100.0 100.0 100.0 100.0 100.0 100.0 100.0 100.0 100.0 100.0 100.0 100.0 100.0 100.0 100.0 100.0 100.0 100.0 34.509803921568626 34.90196078431372 34.90196078431372 36.07843137254902 36.07843137254902 35.68627450980392 36.07843137254902 36.86274509803922 37.254901960784316 37.254901960784316 36.470588235294116 36.07843137254902 36.470588235294116 36.86274509803922 36.07843137254902 34.509803921568626 25.098039215686274 25.098039215686274 25.098039215686274 25.098039215686274
0.0 0.0 0.0 0.0 0.0 0.0 0.0 0.0 0.0 0.0 0.0 0.0 0.0 0.0 0.0 0.0 0.0 0.0 0.0 0.0 0.0 0.0 0.0 0.0 0.0 0.0 25.098039215686274 25.098039215686274 25.098039215686274 25.098039215686274 25.098039215686274 25.098039215686274 25.098039215686274 25.098039215686274 25.098039215686274 25.098039215686274 25.098039215686274 25.098039215686274 25.098039215686274 25.098039215686274 25.098039215686274 25.098039215686274 25.098039215686274 25.098039215686274 25.098039215686274 25.098039215686274 25.098039215686274 25.098039215686274 25.098039215686274 25.098039215686274 25.098039215686274 25.098039215686274 25.098039215686274 25.098039215686274 25.098039215686274 25.098039215686274 25.098039215686274 25.49019607843137 25.49019607843137 25.49019607843137 25.882352941176475 26.27450980392157 26.666666666666668 27.058823529411764 27.058823529411764 27.450980392156865 27.84313725490196 27.84313725490196 27.450980392156865 27.058823529411764 25.098039215686274 25.098039215686274 25.098039215686274 25.098039215686274 25.098039215686274 25.098039215686274 25.098039215686274 25.098039215686274 25.098039215686274 25.098039215686274 25.098039215686274 25.098039215686274 25.098039215686274 25.098039215686274 25.098039215686274 25.098039215686274 25.098039215686274 25.098039215686274 25.098039215686274 25.098039215686274 25.098039215686274 25.098039215686274 25.098039215686274 28.235294117647058 32.94117647058823 34.90196078431372 34.509803921568626 33.72549019607843 33.33333333333333 32.94117647058823 32.94117647058823 34.509803921568626 34.90196078431372 34.90196078431372 35.294117647058826 35.68627450980392 35.68627450980392 36.07843137254902 36.470588235294116 37.254901960784316 37.64705882352941 36.86274509803922 36.07843137254902 36.86274509803922 36.86274509803922 36.07843137254902 100.0 100.0 100.0 100.0 100.0 100.0 100.0 100.0 100.0 100.0 100.0 100.0 100.0 100.0 100.0 100.0 100.0 100.0 100.0 100.0 100.0 100.0 100.0 100.0 100.0 100.0 100.0 100.0 100.0 100.0 100.0 100.0 100.0 100.0 100.0 100.0 100.0 100.0 100.0 33.33333333333333 34.509803921568626 34.509803921568626 34.509803921568626 36.07843137254902 36.07843137254902 36.07843137254902 36.470588235294116 36.470588235294116 36.86274509803922 36.86274509803922 36.470588235294116 36.470588235294116 36.86274509803922 36.470588235294116 35.68627450980392 33.33333333333333 25.098039215686274 25.098039215686274 25.098039215686274 25.098039215686274
0.0 0.0 0.0 0.0 0.0 0.0 0.0 0.0 0.0 0.0 0.0 0.0 0.0 0.0 0.0 0.0 0.0 0.0 0.0 0.0 0.0 0.0 0.0 0.0 0.0 0.0 25.098039215686274 25.098039215686274 25.098039215686274 25.098039215686274 25.098039215686274 25.098039215686274 25.098039215686274 25.098039215686274 25.098039215686274 25.098039215686274 25.098039215686274 25.098039215686274 25.098039215686274 25.098039215686274 25.098039215686274 25.098039215686274 25.098039215686274 25.098039215686274 25.098039215686274 25.098039215686274 25.098039215686274 25.098039215686274 25.098039215686274 25.098039215686274 25.098039215686274 25.098039215686274 25.098039215686274 25.098039215686274 25.098039215686274 25.098039215686274 25.098039215686274 25.098039215686274 25.098039215686274 25.098039215686274 25.098039215686274 25.098039215686274 25.098039215686274 25.098039215686274 25.098039215686274 25.098039215686274 25.098039215686274 25.098039215686274 25.098039215686274 25.098039215686274 25.098039215686274 25.098039215686274 25.098039215686274 25.098039215686274 25.098039215686274 25.098039215686274 25.098039215686274 25.098039215686274 25.098039215686274 25.098039215686274 25.098039215686274 25.098039215686274 25.098039215686274 25.098039215686274 25.098039215686274 25.098039215686274 25.098039215686274 25.098039215686274 25.098039215686274 25.098039215686274 25.098039215686274 25.098039215686274 25.098039215686274 28.627450980392155 32.549019607843135 34.90196078431372 34.509803921568626 33.72549019607843 33.72549019607843 33.33333333333333 32.549019607843135 33.72549019607843 35.294117647058826 35.294117647058826 35.294117647058826 35.294117647058826 36.07843137254902 36.07843137254902 36.470588235294116 37.254901960784316 37.64705882352941 36.86274509803922 36.07843137254902 36.470588235294116 36.86274509803922 36.07843137254902 34.90196078431372 100.0 100.0 100.0 100.0 100.0 100.0 100.0 100.0 100.0 100.0 100.0 100.0 100.0 100.0 100.0 100.0 100.0 100.0 100.0 100.0 100.0 100.0 100.0 100.0 100.0 100.0 100.0 100.0 100.0 100.0 100.0 100.0 100.0 100.0 100.0 100.0 100.0 32.94117647058823 33.33333333333333 34.509803921568626 34.90196078431372 34.90196078431372 36.07843137254902 36.07843137254902 35.68627450980392 36.470588235294116 36.470588235294116 36.86274509803922 36.86274509803922 36.470588235294116 36.86274509803922 36.86274509803922 36.470588235294116 35.68627450980392 30.19607843137255 25.098039215686274 25.098039215686274 25.098039215686274 25.098039215686274
0.0 0.0 0.0 0.0 0.0 0.0 0.0 0.0 0.0 0.0 0.0 0.0 0.0 0.0 0.0 0.0 0.0 0.0 0.0 0.0 0.0 0.0 0.0 0.0 0.0 0.0 25.098039215686274 25.098039215686274 25.098039215686274 25.098039215686274 25.098039215686274 25.098039215686274 25.098039215686274 25.098039215686274 25.098039215686274 25.098039215686274 25.098039215686274 25.098039215686274 25.098039215686274 25.098039215686274 25.098039215686274 25.098039215686274 25.098039215686274 25.098039215686274 25.098039215686274 25.098039215686274 25.098039215686274 25.098039215686274 25.098039215686274 25.098039215686274 25.098039215686274 25.098039215686274 25.098039215686274 25.098039215686274 25.098039215686274 25.098039215686274 25.098039215686274 25.098039215686274 25.098039215686274 25.098039215686274 25.098039215686274 25.098039215686274 25.098039215686274 25.098039215686274 25.098039215686274 25.098039215686274 25.098039215686274 25.098039215686274 25.098039215686274 25.098039215686274 25.098039215686274 25.098039215686274 25.098039215686274 25.098039215686274 25.098039215686274 25.098039215686274 25.098039215686274 25.098039215686274 25.098039215686274 25.098039215686274 25.098039215686274 25.098039215686274 25.098039215686274 25.098039215686274 25.098039215686274 25.098039215686274 25.098039215686274 25.098039215686274 25.098039215686274 25.098039215686274 25.098039215686274 25.098039215686274 25.098039215686274 28.235294117647058 32.549019607843135 34.90196078431372 34.509803921568626 33.72549019607843 34.11764705882353 33.33333333333333 32.549019607843135 34.11764705882353 35.294117647058826 34.90196078431372 35.294117647058826 35.68627450980392 36.07843137254902 36.07843137254902 36.470588235294116 37.64705882352941 37.64705882352941 36.470588235294116 36.07843137254902 36.470588235294116 36.86274509803922 36.07843137254902 34.509803921568626 25.098039215686274 100.0 100.0 100.0 100.0 100.0 100.0 100.0 100.0 100.0 100.0 100.0 100.0 100.0 100.0 100.0 100.0 100.0 100.0 100.0 100.0 100.0 100.0 100.0 100.0 100.0 100.0 100.0 100.0 100.0 100.0 100.0 100.0 100.0 100.0 100.0 33.72549019607843 32.94117647058823 33.72549019607843 34.509803921568626 34.90196078431372 35.294117647058826 36.470588235294116 36.07843137254902 36.07843137254902 36.470588235294116 36.07843137254902 36.86274509803922 36.86274509803922 36.86274509803922 36.86274509803922 36.86274509803922 36.470588235294116 35.294117647058826 29.01960784313726 25.098039215686274 25.098039215686274 25.098039215686274 25.098039215686274
0.0 0.0 0.0 0.0 0.0 0.0 0.0 0.0 0.0 0.0 0.0 0.0 0.0 0.0 0.0 0.0 0.0 0.0 0.0 0.0 0.0 0.0 0.0 0.0 0.0 25.098039215686274 25.098039215686274 25.098039215686274 25.098039215686274 25.098039215686274 25.098039215686274 25.098039215686274 25.098039215686274 25.098039215686274 25.098039215686274 25.098039215686274 25.098039215686274 25.098039215686274 25.098039215686274 25.098039215686274 25.098039215686274 25.098039215686274 25.098039215686274 25.098039215686274 25.098039215686274 25.098039215686274 25.098039215686274 25.098039215686274 25.098039215686274 25.098039215686274 25.098039215686274 25.098039215686274 25.098039215686274 25.098039215686274 25.098039215686274 25.098039215686274 25.098039215686274 25.098039215686274 25.098039215686274 25.098039215686274 25.098039215686274 25.098039215686274 25.098039215686274 25.098039215686274 25.098039215686274 25.098039215686274 25.098039215686274 25.098039215686274 25.098039215686274 25.098039215686274 25.098039215686274 25.098039215686274 25.098039215686274 25.098039215686274 25.098039215686274 25.098039215686274 25.098039215686274 25.098039215686274 25.098039215686274 25.098039215686274 25.098039215686274 25.098039215686274 25.098039215686274 25.098039215686274 25.098039215686274 25.098039215686274 25.098039215686274 25.098039215686274 25.098039215686274 25.098039215686274 25.098039215686274 25.098039215686274 25.098039215686274 28.235294117647058 32.94117647058823 34.90196078431372 34.509803921568626 33.72549019607843 33.72549019607843 33.33333333333333 32.549019607843135 33.72549019607843 35.294117647058826 34.90196078431372 35.294117647058826 36.07843137254902 36.07843137254902 36.07843137254902 36.470588235294116 37.254901960784316 37.64705882352941 36.86274509803922 36.07843137254902 36.470588235294116 36.86274509803922 36.470588235294116 34.509803921568626 25.098039215686274 25.098039215686274 25.098039215686274 100.0 100.0 100.0 100.0 100.0 100.0 100.0 100.0 100.0 100.0 100.0 100.0 100.0 100.0 100.0 100.0 100.0 100.0 100.0 100.0 100.0 100.0 100.0 100.0 100.0 100.0 100.0 100.0 100.0 100.0 100.0 33.72549019607843 34.509803921568626 33.33333333333333 32.94117647058823 34.11764705882353 34.90196078431372 34.90196078431372 35.294117647058826 36.470588235294116 36.07843137254902 36.07843137254902 36.470588235294116 36.07843137254902 36.86274509803922 36.86274509803922 36.86274509803922 36.86274509803922 36.86274509803922 36.470588235294116 34.90196078431372 25.098039215686274 25.098039215686274 25.098039215686274 25.098039215686274 25.098039215686274
0.0 0.0 0.0 0.0 0.0 0.0 0.0 0.0 0.0 0.0 0.0 0.0 0.0 0.0 0.0 0.0 0.0 0.0 0.0 0.0 0.0 0.0 0.0 0.0 0.0 25.098039215686274 25.098039215686274 25.098039215686274 25.098039215686274 25.098039215686274 25.098039215686274 25.098039215686274 25.098039215686274 25.098039215686274 25.098039215686274 25.098039215686274 25.098039215686274 25.098039215686274 25.098039215686274 25.098039215686274 25.098039215686274 25.098039215686274 25.098039215686274 25.098039215686274 25.098039215686274 25.098039215686274 25.098039215686274 25.098039215686274 25.098039215686274 25.098039215686274 25.098039215686274 25.098039215686274 25.098039215686274 25.098039215686274 25.098039215686274 25.098039215686274 25.098039215686274 25.098039215686274 25.098039215686274 25.098039215686274 25.098039215686274 25.098039215686274 25.098039215686274 25.098039215686274 25.098039215686274 25.098039215686274 25.098039215686274 25.098039215686274 25.098039215686274 25.098039215686274 25.098039215686274 25.098039215686274 25.098039215686274 25.098039215686274 25.098039215686274 25.098039215686274 25.098039215686274 25.098039215686274 25.098039215686274 25.098039215686274 25.098039215686274 25.098039215686274 25.098039215686274 25.098039215686274 25.098039215686274 25.098039215686274 25.098039215686274 25.098039215686274 25.098039215686274 25.098039215686274 25.098039215686274 25.098039215686274 25.098039215686274 28.235294117647058 32.94117647058823 34.90196078431372 34.509803921568626 34.11764705882353 34.11764705882353 33.72549019607843 32.549019607843135 33.72549019607843 34.90196078431372 35.294117647058826 35.294117647058826 35.68627450980392 35.68627450980392 36.07843137254902 36.470588235294116 37.254901960784316 37.254901960784316 36.86274509803922 36.07843137254902 36.470588235294116 36.86274509803922 36.470588235294116 34.90196078431372 25.098039215686274 25.098039215686274 25.098039215686274 30.980392156862745 100.0 100.0 100.0 100.0 100.0 100.0 100.0 100.0 100.0 100.0 100.0 100.0 100.0 100.0 100.0 100.0 100.0 100.0 100.0 100.0 100.0 100.0 100.0 100.0 100.0 100.0 100.0 100.0 100.0 35.68627450980392 34.90196078431372 35.294117647058826 34.509803921568626 34.509803921568626 35.294117647058826 36.07843137254902 35.68627450980392 36.07843137254902 36.86274509803922 36.470588235294116 36.86274509803922 36.470588235294116 36.470588235294116 36.86274509803922 36.86274509803922 36.86274509803922 37.254901960784316 36.86274509803922 36.470588235294116 33.72549019607843 25.098039215686274 25.098039215686274 25.098039215686274 25.098039215686274 25.098039215686274
0.0 0.0 0.0 0.0 0.0 0.0 0.0 0.0 0.0 0.0 0.0 0.0 0.0 0.0 0.0 0.0 0.0 0.0 0.0 0.0 0.0 0.0 0.0 0.0 0.0 25.098039215686274 25.098039215686274 25.098039215686274 25.098039215686274 25.098039215686274 25.098039215686274 25.098039215686274 25.098039215686274 25.098039215686274 25.098039215686274 25.098039215686274 25.098039215686274 25.098039215686274 25.098039215686274 25.098039215686274 25.098039215686274 25.098039215686274 25.098039215686274 25.098039215686274 25.098039215686274 25.098039215686274 25.098039215686274 25.098039215686274 25.098039215686274 25.098039215686274 25.098039215686274 25.098039215686274 25.098039215686274 25.098039215686274 25.098039215686274 25.098039215686274 25.098039215686274 25.098039215686274 25.098039215686274 25.098039215686274 25.098039215686274 25.098039215686274 25.098039215686274 25.098039215686274 25.098039215686274 25.098039215686274 25.098039215686274 25.098039215686274 25.098039215686274 25.098039215686274 25.098039215686274 25.098039215686274 25.098039215686274 25.098039215686274 25.098039215686274 25.098039215686274 25.098039215686274 25.098039215686274 25.098039215686274 25.098039215686274 25.098039215686274 25.098039215686274 25.098039215686274 25.098039215686274 25.098039215686274 25.098039215686274 25.098039215686274 25.098039215686274 25.098039215686274 25.098039215686274 25.098039215686274 25.098039215686274 25.098039215686274 28.235294117647058 32.94117647058823 34.90196078431372 34.90196078431372 34.11764705882353 34.509803921568626 33.33333333333333 32.94117647058823 33.72549019607843 34.90196078431372 34.509803921568626 35.294117647058826 36.07843137254902 36.07843137254902 36.07843137254902 36.470588235294116 36.470588235294116 36.86274509803922 36.470588235294116 36.470588235294116 36.86274509803922 36.86274509803922 36.470588235294116 33.72549019607843 25.098039215686274 25.098039215686274 25.098039215686274 30.58823529411765 40.0 42.35294117647059 43.13725490196079 100.0 100.0 100.0 100.0 100.0 100.0 100.0 100.0 100.0 100.0 100.0 100.0 100.0 100.0 100.0 100.0 100.0 100.0 100.0 100.0 100.0 100.0 100.0 100.0 35.68627450980392 36.86274509803922 37.254901960784316 36.86274509803922 37.254901960784316 37.254901960784316 36.86274509803922 38.03921568627451 38.43137254901961 38.43137254901961 38.82352941176471 38.82352941176471 38.82352941176471 38.82352941176471 38.82352941176471 38.43137254901961 38.03921568627451 38.03921568627451 36.86274509803922 37.254901960784316 36.86274509803922 36.07843137254902 32.549019607843135 25.098039215686274 25.098039215686274 25.098039215686274 25.098039215686274 25.098039215686274
0.0 0.0 0.0 0.0 0.0 0.0 0.0 0.0 0.0 0.0 0.0 0.0 0.0 0.0 0.0 0.0 0.0 0.0 0.0 0.0 0.0 0.0 0.0 0.0 25.098039215686274 25.098039215686274 25.098039215686274 25.098039215686274 25.098039215686274 25.098039215686274 25.098039215686274 25.098039215686274 25.098039215686274 25.098039215686274 25.098039215686274 25.098039215686274 25.098039215686274 25.098039215686274 25.098039215686274 25.098039215686274 25.098039215686274 25.098039215686274 25.098039215686274 25.098039215686274 25.098039215686274 25.098039215686274 25.098039215686274 25.098039215686274 25.098039215686274 25.098039215686274 25.098039215686274 25.098039215686274 25.098039215686274 25.098039215686274 25.098039215686274 25.098039215686274 25.098039215686274 25.098039215686274 25.098039215686274 25.098039215686274 25.098039215686274 25.098039215686274 25.098039215686274 25.098039215686274 25.098039215686274 25.098039215686274 25.098039215686274 25.098039215686274 25.098039215686274 25.098039215686274 25.098039215686274 25.098039215686274 25.098039215686274 25.098039215686274 25.098039215686274 25.098039215686274 25.098039215686274 25.098039215686274 25.098039215686274 25.098039215686274 25.098039215686274 25.098039215686274 25.098039215686274 25.098039215686274 25.098039215686274 25.098039215686274 25.098039215686274 25.098039215686274 25.098039215686274 25.098039215686274 25.098039215686274 25.098039215686274 25.098039215686274 28.235294117647058 33.72549019607843 34.90196078431372 35.294117647058826 34.11764705882353 34.509803921568626 33.33333333333333 32.94117647058823 33.72549019607843 34.90196078431372 34.90196078431372 35.68627450980392 36.07843137254902 36.07843137254902 36.07843137254902 36.470588235294116 36.470588235294116 36.470588235294116 36.86274509803922 36.86274509803922 36.86274509803922 36.86274509803922 36.470588235294116 33.33333333333333 25.098039215686274 25.098039215686274 25.098039215686274 30.19607843137255 39.6078431372549 42.35294117647059 42.745098039215684 41.17647058823529 41.17647058823529 100.0 100.0 100.0 100.0 100.0 100.0 100.0 100.0 100.0 100.0 100.0 100.0 100.0 100.0 100.0 100.0 100.0 100.0 100.0 28.627450980392155 31.372549019607842 35.294117647058826 38.03921568627451 38.82352941176471 38.82352941176471 38.82352941176471 38.82352941176471 38.82352941176471 38.82352941176471 39.6078431372549 39.6078431372549 39.6078431372549 39.6078431372549 40.0 40.0 40.0 40.0 40.0 40.0 40.0 40.0 40.0 39.21568627450981 37.64705882352941 33.33333333333333 27.058823529411764 25.49019607843137 25.098039215686274 25.098039215686274 25.098039215686274
0.0 0.0 0.0 0.0 0.0 0.0 0.0 0.0 0.0 0.0 0.0 0.0 0.0 0.0 0.0 0.0 0.0 0.0 0.0 0.0 0.0 0.0 0.0 0.0 25.098039215686274 25.098039215686274 25.098039215686274 25.098039215686274 25.098039215686274 25.098039215686274 25.098039215686274 25.098039215686274 25.098039215686274 25.098039215686274 25.098039215686274 25.098039215686274 25.098039215686274 25.098039215686274 25.098039215686274 25.098039215686274 25.098039215686274 25.098039215686274 25.098039215686274 25.098039215686274 25.098039215686274 25.098039215686274 25.098039215686274 25.098039215686274 25.098039215686274 25.098039215686274 25.098039215686274 25.098039215686274 25.098039215686274 25.098039215686274 25.098039215686274 25.098039215686274 25.098039215686274 25.098039215686274 25.098039215686274 25.098039215686274 25.098039215686274 25.098039215686274 25.098039215686274 25.098039215686274 25.098039215686274 25.098039215686274 25.098039215686274 25.098039215686274 25.098039215686274 25.098039215686274 25.098039215686274 25.098039215686274 25.098039215686274 25.098039215686274 25.098039215686274 25.098039215686274 25.098039215686274 25.098039215686274 25.098039215686274 25.098039215686274 25.098039215686274 25.098039215686274 25.098039215686274 25.098039215686274 25.098039215686274 25.098039215686274 25.098039215686274 25.098039215686274 25.098039215686274 25.098039215686274 25.098039215686274 25.098039215686274 25.098039215686274 27.84313725490196 33.72549019607843 34.509803921568626 35.294117647058826 34.11764705882353 34.509803921568626 33.72549019607843 32.94117647058823 33.72549019607843 34.509803921568626 34.509803921568626 35.68627450980392 36.470588235294116 36.07843137254902 36.07843137254902 36.470588235294116 36.07843137254902 36.470588235294116 36.86274509803922 36.86274509803922 37.254901960784316 36.86274509803922 36.470588235294116 33.72549019607843 25.098039215686274 25.098039215686274 25.098039215686274 30.19607843137255 38.82352941176471 41.96078431372549 42.745098039215684 41.17647058823529 41.17647058823529 40.78431372549019 39.6078431372549 40.78431372549019 42.35294117647059 100.0 100.0 100.0 100.0 100.0 100.0 100.0 100.0 100.0 100.0 100.0 47.45098039215686 46.666666666666664 44.31372549019608 31.76470588235294 33.72549019607843 35.68627450980392 38.03921568627451 39.21568627450981 39.6078431372549 39.6078431372549 39.6078431372549 39.6078431372549 39.21568627450981 39.6078431372549 39.6078431372549 40.0 40.3921568627451 40.0 40.0 40.3921568627451 40.3921568627451 40.3921568627451 40.3921568627451 40.3921568627451 40.3921568627451 40.3921568627451 40.3921568627451 40.3921568627451 39.6078431372549 37.254901960784316 35.294117647058826 35.294117647058826 33.72549019607843 32.15686274509804 30.58823529411765
0.0 0.0 0.0 0.0 0.0 0.0 0.0 0.0 0.0 0.0 0.0 0.0 0.0 0.0 0.0 0.0 0.0 0.0 0.0 0.0 0.0 0.0 0.0 25.098039215686274 25.098039215686274 25.098039215686274 25.098039215686274 25.098039215686274 25.098039215686274 25.098039215686274 25.098039215686274 25.098039215686274 25.098039215686274 25.098039215686274 25.098039215686274 25.098039215686274 25.098039215686274 25.098039215686274 25.098039215686274 25.098039215686274 25.098039215686274 25.098039215686274 25.098039215686274 25.098039215686274 25.098039215686274 25.098039215686274 25.098039215686274 25.098039215686274 25.098039215686274 25.098039215686274 25.098039215686274 25.098039215686274 25.098039215686274 25.098039215686274 25.098039215686274 25.098039215686274 25.098039215686274 25.098039215686274 25.098039215686274 25.098039215686274 25.098039215686274 25.098039215686274 25.098039215686274 25.098039215686274 25.098039215686274 25.098039215686274 25.098039215686274 25.098039215686274 25.098039215686274 25.098039215686274 25.098039215686274 25.098039215686274 25.098039215686274 25.098039215686274 25.098039215686274 25.098039215686274 25.098039215686274 25.098039215686274 25.098039215686274 25.098039215686274 25.098039215686274 25.098039215686274 25.098039215686274 25.098039215686274 25.098039215686274 25.098039215686274 25.098039215686274 25.098039215686274 25.098039215686274 25.098039215686274 25.098039215686274 25.098039215686274 25.098039215686274 28.235294117647058 33.33333333333333 34.509803921568626 35.294117647058826 34.11764705882353 34.509803921568626 33.72549019607843 32.94117647058823 33.72549019607843 34.509803921568626 34.509803921568626 35.294117647058826 36.470588235294116 36.07843137254902 36.07843137254902 36.470588235294116 36.470588235294116 36.470588235294116 36.86274509803922 36.86274509803922 37.254901960784316 37.254901960784316 36.470588235294116 34.90196078431372 29.01960784313726 25.098039215686274 25.098039215686274 29.80392156862745 38.43137254901961 41.96078431372549 42.35294117647059 41.17647058823529 41.17647058823529 40.78431372549019 39.6078431372549 41.17647058823529 42.745098039215684 43.13725490196079 43.529411764705884 44.31372549019608 44.70588235294118 45.09803921568628 45.490196078431374 45.88235294117647 46.27450980392157 46.666666666666664 47.45098039215686 47.45098039215686 48.627450980392155 47.84313725490196 45.88235294117647 35.68627450980392 36.470588235294116 37.64705882352941 38.82352941176471 39.6078431372549 40.0 39.6078431372549 39.6078431372549 39.6078431372549 39.6078431372549 39.6078431372549 40.0 40.0 40.0 40.0 40.0 40.0 40.3921568627451 40.3921568627451 40.3921568627451 40.3921568627451 40.3921568627451 40.3921568627451 40.3921568627451 40.3921568627451 40.0 37.64705882352941 35.68627450980392 35.294117647058826 34.90196078431372 34.90196078431372 34.509803921568626
